# x-coord y-coord radius
0.327739 0.0530507 0.00861486
0.343495 0.0536304 0.00827815
0.311539 0.0540316 0.00869488
0.296141 0.0547354 0.00807712
0.358005 0.0555106 0.00815876
0.281476 0.05751 0.00809484
0.37242 0.0583109 0.00826275
0.659307 0.0591399 0.00742546
0.673131 0.0599212 0.00797071
0.686621 0.0603082 0.00764989
0.699955 0.0603381 0.00766756
0.713983 0.0617193 0.00696662
0.38776 0.061813 0.00804502
0.646019 0.062565 0.00817216
0.631165 0.0630067 0.0084737
0.266913 0.0635131 0.0086347
0.725989 0.0665596 0.007634
0.614064 0.0675242 0.00881807
0.404081 0.0676845 0.00796096
0.337859 0.0678146 0.00764546
0.318954 0.0679159 0.00773244
0.299384 0.0691745 0.00770356
0.253481 0.0694126 0.00870929
0.737898 0.0697561 0.00745755
0.356201 0.0707373 0.00753508
0.28194 0.0710544 0.00743858
0.597661 0.0722612 0.00887208
0.661076 0.0732853 0.00730875
0.710539 0.0734406 0.0068931
0.69568 0.0735173 0.00709289
0.373883 0.0736632 0.00720591
0.750401 0.0739837 0.00726724
0.678351 0.0747149 0.00742278
0.390539 0.0750418 0.00682287
0.239034 0.0751938 0.00838231
0.419486 0.0755016 0.00834972
0.628335 0.0773832 0.00708672
0.579434 0.0788776 0.00869099
0.645631 0.0800613 0.00715769
0.763305 0.0801791 0.00702239
0.722292 0.0811289 0.00721943
0.26852 0.0817464 0.00736301
0.405038 0.0832142 0.0069846
0.329007 0.0834148 0.00637125
0.308707 0.0837697 0.00673863
0.43487 0.0840366 0.00845395
0.738454 0.0841856 0.00727409
0.223674 0.0855382 0.00880452
0.34819 0.0862501 0.00624791
0.287527 0.0863665 0.00682958
0.752506 0.0864014 0.0064652
0.611859 0.0864178 0.00720177
0.775272 0.0864713 0.00703457
0.563903 0.0867872 0.00874168
0.591331 0.0871763 0.00695404
0.704504 0.0872193 0.00659172
0.687668 0.0879297 0.00661372
0.254063 0.0883517 0.00749455
0.238831 0.0895381 0.00725957
0.666208 0.0897661 0.00676928
0.368465 0.0898836 0.00616292
0.387775 0.0910444 0.00599298
0.420267 0.092722 0.00687402
0.728016 0.0935077 0.00617583
0.45059 0.0937774 0.00827165
0.788053 0.0942232 0.00683918
0.763969 0.0947232 0.00675309
0.548365 0.0953445 0.00908247
0.630433 0.0957497 0.00614351
0.210447 0.0963758 0.00902024
0.749302 0.0980769 0.00631981
0.712974 0.0983991 0.00626985
0.649925 0.0992109 0.00603731
0.776387 0.0993974 0.00653349
0.572697 0.101374 0.00692019
0.316107 0.101407 0.00596001
0.67867 0.10162 0.00588541
0.436277 0.101846 0.00675309
0.295169 0.10246 0.00594463
0.271701 0.102508 0.00680944
0.230486 0.102525 0.00719735
0.336853 0.10259 0.00569987
0.595808 0.102661 0.00545764
0.403697 0.103834 0.00590094
0.695538 0.104211 0.00650479
0.737276 0.104557 0.00619385
0.79867 0.104874 0.00677104
0.531568 0.105484 0.00922704
0.466465 0.105628 0.00825142
0.35824 0.106476 0.0056342
0.788096 0.107046 0.00661342
0.724277 0.107996 0.00577756
0.761961 0.108546 0.00632768
0.19761 0.108782 0.0087271
0.250551 0.109378 0.00685401
0.452517 0.110637 0.00667781
0.381605 0.110727 0.00562076
0.216387 0.111364 0.00721916
0.774417 0.112313 0.0061208
0.747694 0.112363 0.00574266
0.806707 0.1127 0.00641328
0.665827 0.112719 0.00601154
0.552668 0.113242 0.00659443
0.708452 0.113789 0.00630562
0.614009 0.113926 0.00545509
0.423063 0.115266 0.00542912
0.634003 0.117633 0.00557775
0.47976 0.117888 0.0082091
0.514041 0.11849 0.00914231
0.681372 0.118694 0.00641048
0.651941 0.119319 0.00567117
0.785182 0.120038 0.00621342
0.324307 0.120108 0.00598566
0.724381 0.12041 0.0061006
0.304674 0.120752 0.00607772
0.814569 0.121533 0.00689137
0.284682 0.121761 0.00619385
0.755955 0.121905 0.0059006
0.343774 0.122067 0.00594128
0.186786 0.122199 0.0087255
0.799371 0.122311 0.00672917
0.233428 0.122967 0.00633019
0.205143 0.123417 0.00691645
0.530534 0.123955 0.00659112
0.695432 0.124273 0.00652679
0.739257 0.124551 0.00689627
0.587767 0.125679 0.00444243
0.364229 0.12591 0.00581601
0.77085 0.126155 0.00647781
0.265517 0.127288 0.00630341
0.495032 0.127604 0.00843368
0.446328 0.12765 0.00509398
0.466748 0.127903 0.00628191
0.402117 0.128455 0.00522551
0.7098 0.128794 0.00630278
0.789648 0.131704 0.00579647
0.821889 0.131914 0.00707322
0.382954 0.132921 0.00569568
0.665298 0.133023 0.00732507
0.723553 0.133892 0.0065651
0.757537 0.134146 0.00579373
0.80795 0.134396 0.00666737
0.647598 0.134425 0.0068604
0.68079 0.134656 0.00702381
0.62897 0.136233 0.00686967
0.316488 0.13626 0.0070374
0.218865 0.136931 0.00594161
0.176927 0.136942 0.00868183
0.333172 0.137191 0.00702353
0.194693 0.13768 0.00713179
0.505929 0.138254 0.00851751
0.29948 0.138674 0.0072255
0.694948 0.138744 0.00664165
0.348603 0.139249 0.00686533
0.248682 0.139472 0.00610875
0.747185 0.139495 0.0062581
0.426027 0.1397 0.00430824
0.780474 0.139948 0.00592887
0.611294 0.140284 0.00702069
0.482822 0.140325 0.00655782
0.734715 0.140532 0.0064858
0.767949 0.141736 0.00581806
0.707805 0.142116 0.00669716
0.830844 0.142457 0.00639463
0.283441 0.143163 0.0074466
0.362121 0.143435 0.00661162
0.795497 0.144364 0.00624441
0.822065 0.147334 0.0061286
0.718861 0.147479 0.00682491
0.809421 0.147799 0.00599629
0.375006 0.148538 0.00659625
0.593262 0.14888 0.00674247
0.408686 0.150551 0.00560764
0.268423 0.150773 0.00741688
0.760213 0.151522 0.00645535
0.168601 0.151723 0.00850114
0.746067 0.152664 0.00680739
0.388814 0.153051 0.00711782
0.729192 0.153133 0.00696319
0.514793 0.153713 0.00780621
0.776945 0.15407 0.0062147
0.1853 0.155101 0.0068746
0.207014 0.155536 0.00560374
0.232793 0.155864 0.00601783
0.836296 0.155866 0.0074284
0.498312 0.156608 0.00633365
0.790077 0.158042 0.00614546
0.574023 0.158332 0.00669597
0.820031 0.160784 0.00613249
0.737067 0.16108 0.00652892
0.804721 0.161474 0.00616583
0.25474 0.162513 0.00743537
0.431932 0.16322 0.00525135
0.399692 0.16355 0.00650143
0.767747 0.164503 0.0065341
0.754488 0.16489 0.0067028
0.160879 0.166308 0.00767742
0.843682 0.169125 0.00694545
0.74504 0.169551 0.00650969
0.520613 0.169885 0.00850933
0.830619 0.170235 0.00642754
0.412903 0.17129 0.00717713
0.780366 0.17145 0.00662545
0.173787 0.172564 0.00676016
0.555065 0.172926 0.00645504
0.794754 0.173616 0.00622046
0.813168 0.175986 0.00639961
0.242695 0.175999 0.00724063
0.763453 0.176929 0.00661914
0.192782 0.177637 0.00520108
0.218664 0.17853 0.00551171
0.752747 0.180386 0.00675603
0.446311 0.181532 0.00492877
0.532401 0.181585 0.00809066
0.424997 0.182298 0.00716103
0.156947 0.182521 0.00822774
0.846246 0.1829 0.00741204
0.773685 0.183322 0.00641886
0.828511 0.184423 0.00636281
0.802076 0.187398 0.00594931
0.78736 0.188954 0.00666857
0.233867 0.191251 0.00683919
0.760487 0.191932 0.007622
0.436301 0.194218 0.00693226
0.539155 0.194698 0.00769787
0.172763 0.194873 0.00619802
0.773832 0.195496 0.00671467
0.850526 0.195894 0.00706393
0.815287 0.196251 0.0062358
0.152846 0.198432 0.00824104
0.833715 0.199204 0.00647474
0.456021 0.202492 0.00611331
0.798314 0.203117 0.00661433
0.765442 0.205512 0.00740371
0.202775 0.205685 0.00467512
0.781901 0.205974 0.00725436
0.225784 0.20609 0.0069729
0.546988 0.208006 0.00748791
0.438597 0.208264 0.00811449
0.853386 0.209125 0.00674276
0.148859 0.213577 0.007773
0.817927 0.213741 0.00644949
0.838462 0.214421 0.00606198
0.167378 0.217944 0.00594463
0.768443 0.218039 0.00736112
0.798366 0.219043 0.00687807
0.453452 0.219461 0.00754009
0.782091 0.219722 0.0072321
0.429797 0.2208 0.0081059
0.471775 0.220919 0.00553189
0.55403 0.221583 0.00725354
0.220489 0.222697 0.0067631
0.854143 0.224276 0.0075459
0.147748 0.22964 0.00813775
0.83318 0.230528 0.00602741
0.77217 0.231185 0.00787702
0.812196 0.231368 0.00618484
0.788555 0.234422 0.00748073
0.422129 0.23496 0.00810074
0.465816 0.235003 0.00731828
0.560566 0.235166 0.00707716
0.44033 0.23584 0.0059386
0.215695 0.238285 0.00685604
0.855254 0.240545 0.00712676
0.771966 0.244076 0.00806405
0.161772 0.244741 0.00550701
0.80106 0.245203 0.0061542
0.478645 0.246439 0.00790477
0.145022 0.246693 0.00758798
0.840415 0.246849 0.00564091
0.56655 0.249412 0.00710355
0.414432 0.249632 0.00806084
0.819957 0.250876 0.00568799
0.431676 0.25088 0.00641638
0.784763 0.251791 0.00733702
0.215626 0.253651 0.00626032
0.769931 0.25864 0.00828175
0.454698 0.258681 0.00510647
0.855177 0.259578 0.0072486
0.798931 0.262942 0.0061916
0.420055 0.263028 0.00674395
0.148185 0.263032 0.00799116
0.480804 0.263138 0.00756407
0.572262 0.264173 0.0071343
0.495454 0.265134 0.0058783
0.837082 0.266077 0.00542802
0.407452 0.267007 0.00798219
0.215907 0.267801 0.0063072
0.782663 0.269393 0.00736274
0.435229 0.269606 0.00609897
0.815897 0.273177 0.0051773
0.767465 0.27366 0.00817143
0.473786 0.276182 0.00669686
0.452487 0.277747 0.00566661
0.149377 0.27851 0.00788308
0.853143 0.27889 0.00708756
0.419334 0.27909 0.00714099
0.577414 0.279658 0.00730766
0.402502 0.281779 0.00790779
0.216625 0.281791 0.00610419
0.49243 0.282787 0.00750596
0.797449 0.283583 0.00588405
0.778315 0.28581 0.00723155
0.435245 0.286402 0.00630025
0.507041 0.287147 0.00549217
0.834683 0.287228 0.00499057
0.762943 0.288582 0.00809754
0.46882 0.290411 0.00670221
0.411099 0.29139 0.00706956
0.150993 0.293711 0.0075163
0.451828 0.293959 0.00630057
0.218621 0.294743 0.00601154
0.581277 0.295787 0.00756592
0.423803 0.296186 0.00690723
0.397623 0.297264 0.00807761
0.849306 0.298312 0.00686417
0.790203 0.301599 0.00576998
0.771613 0.302014 0.0071702
0.437301 0.302108 0.00676869
0.81775 0.302423 0.00436924
0.501325 0.302631 0.0076756
0.757283 0.303955 0.00800186
0.411548 0.304363 0.00722578
0.464792 0.304653 0.00668139
0.221446 0.307323 0.00604127
0.51837 0.30794 0.00534153
0.153144 0.308772 0.00736058
0.450543 0.309938 0.00657328
0.588329 0.310384 0.00729785
0.42288 0.310795 0.00757775
0.392273 0.312105 0.00747621
0.403772 0.312628 0.00775504
0.437549 0.31615 0.00703598
0.843053 0.316386 0.00700565
0.765941 0.31839 0.00690233
0.751347 0.318656 0.00802471
0.460865 0.319145 0.0068572
0.783836 0.319764 0.0052876
0.22431 0.319799 0.00609277
0.509132 0.320603 0.00765925
0.412864 0.322123 0.00814109
0.427152 0.322587 0.00748529
0.15683 0.323275 0.00702097
0.639576 0.323374 0.00745728
0.652504 0.3246 0.00748552
0.576915 0.325164 0.00576584
0.597622 0.325203 0.0081551
0.447097 0.32531 0.00689743
0.678388 0.325496 0.00755644
0.612812 0.325602 0.0079787
0.665273 0.32568 0.00727627
0.626401 0.325984 0.00813286
0.388325 0.325994 0.00731773
0.400728 0.326984 0.00813712
0.692338 0.327075 0.00752688
0.707383 0.32805 0.00727929
0.529494 0.328888 0.0055606
0.229223 0.331903 0.00625714
0.749875 0.332553 0.00821346
0.720609 0.33268 0.00776711
0.420796 0.332812 0.00763981
0.434905 0.333216 0.00762773
0.457965 0.333299 0.00667035
0.836109 0.334475 0.00677104
0.735042 0.33452 0.00790351
0.768385 0.336225 0.00609799
0.515384 0.336545 0.00741124
0.329248 0.336643 0.00718932
0.341918 0.336706 0.00728393
0.313461 0.336789 0.00726971
0.354192 0.336902 0.00698602
0.639692 0.336919 0.00692622
0.367287 0.337338 0.00683336
0.160419 0.337347 0.00681528
0.379428 0.337939 0.00719707
0.408286 0.338226 0.00817625
0.446268 0.338292 0.00653791
0.608695 0.338791 0.00842002
0.28605 0.338854 0.00693168
0.392073 0.339351 0.00763864
0.29946 0.3395 0.00765119
0.272138 0.340892 0.00711698
0.656867 0.340943 0.00644702
0.593149 0.341264 0.00720343
0.699607 0.341528 0.00569184
0.623917 0.3418 0.00787323
0.676444 0.342414 0.0060069
0.256726 0.342839 0.00714183
0.423396 0.343709 0.00740107
0.240989 0.344187 0.00662034
0.544318 0.345417 0.00553836
0.228959 0.346651 0.00626763
0.741527 0.346839 0.00769968
0.322331 0.346862 0.00602279
0.438011 0.347163 0.00732725
0.454048 0.347206 0.0068746
0.36313 0.348175 0.00628381
0.398794 0.348985 0.00674837
0.572853 0.34932 0.00550954
0.309 0.349955 0.00584366
0.348755 0.350234 0.00618227
0.286069 0.350363 0.00633805
0.523337 0.350426 0.00788132
0.165191 0.350694 0.0065566
0.378221 0.350703 0.00664315
0.411558 0.351268 0.00678132
0.215631 0.351623 0.00586033
0.26845 0.351946 0.00617325
0.334975 0.352047 0.00606986
0.640343 0.352733 0.00621854
0.757819 0.353061 0.00612827
0.829311 0.353217 0.0063828
0.728872 0.353346 0.0078164
0.252276 0.353597 0.00625014
0.608953 0.354207 0.00800982
0.426197 0.35531 0.00661432
0.238617 0.355887 0.00601485
0.204449 0.356548 0.00620027
0.225587 0.356776 0.00591711
0.624465 0.357388 0.00662184
0.389606 0.358056 0.00576238
0.450733 0.359096 0.00674247
0.592179 0.359403 0.00692996
0.438263 0.360358 0.00664555
0.299201 0.360875 0.00527932
0.193322 0.361027 0.00639152
0.361961 0.362011 0.005254
0.214736 0.362801 0.00559343
0.65785 0.362825 0.00493039
0.741714 0.363362 0.00662635
0.41465 0.363701 0.00578376
0.531929 0.363731 0.0078164
0.180924 0.364176 0.00622142
0.280636 0.364331 0.00459785
0.16885 0.364357 0.00608983
0.320519 0.364563 0.00489473
0.553249 0.364807 0.0060669
0.262441 0.365558 0.0046602
0.401322 0.365977 0.00591913
0.722368 0.366446 0.00813139
0.378366 0.366875 0.00509984
0.245657 0.368436 0.00463879
0.42666 0.368488 0.00559379
0.343713 0.368657 0.00474736
0.203052 0.368672 0.00549072
0.230128 0.369689 0.00487028
0.445583 0.371614 0.0067031
0.189252 0.371977 0.00583719
0.6198 0.372027 0.00633679
0.571808 0.372274 0.00614546
0.822172 0.372406 0.0068931
0.637323 0.372587 0.00592148
0.604954 0.372628 0.00695547
0.162599 0.375006 0.00667095
0.83569 0.375181 0.00739699
0.216843 0.375669 0.00443974
0.175781 0.376219 0.00638435
0.541591 0.377007 0.00727545
0.431696 0.377549 0.00573954
0.588707 0.377932 0.00639806
0.739459 0.378025 0.0056666
0.709585 0.378381 0.00751047
0.4139 0.378643 0.00595132
0.366057 0.379642 0.00417879
0.390995 0.37985 0.00523351
0.722618 0.379858 0.00656146
0.2016 0.381055 0.0043013
0.149592 0.381726 0.00695461
0.847641 0.383945 0.00746209
0.440158 0.384764 0.00590869
0.187763 0.385135 0.00457224
0.556063 0.38551 0.00739995
0.162583 0.385885 0.00596335
0.653838 0.388364 0.00608754
0.812443 0.389667 0.00649959
0.619883 0.389975 0.00715436
0.671563 0.390075 0.00594697
0.136831 0.39049 0.00710102
0.571534 0.391046 0.00708812
0.636751 0.39108 0.00637281
0.699389 0.391396 0.0074021
0.409422 0.391517 0.00544047
0.603889 0.39158 0.00718434
0.174985 0.391619 0.00482058
0.858853 0.391658 0.00710803
0.711871 0.392007 0.00662905
0.428796 0.39235 0.00664854
0.148249 0.393859 0.00628634
0.833915 0.393885 0.00621726
0.587954 0.393891 0.00695032
0.728322 0.395323 0.00502197
0.687475 0.396722 0.00679012
0.393246 0.397336 0.00497419
0.124631 0.397341 0.00658266
0.375244 0.397852 0.00437835
0.35264 0.400314 0.00370253
0.16065 0.400473 0.00483377
0.869393 0.400959 0.00747568
0.420085 0.402508 0.006081
0.132829 0.404806 0.00629551
0.852702 0.406391 0.00624058
0.696963 0.406725 0.00719181
0.800235 0.406864 0.00618162
0.116457 0.407675 0.00769089
0.713607 0.408063 0.00558275
0.406474 0.408267 0.0058827
0.681603 0.409145 0.00732752
0.880301 0.409189 0.00704249
0.146105 0.410385 0.00519687
0.39304 0.413029 0.00566134
0.104834 0.413796 0.00691011
0.378916 0.414397 0.00554232
0.364975 0.415228 0.00534749
0.337623 0.416186 0.00522589
0.835612 0.416198 0.0050291
0.35127 0.417232 0.00492716
0.672985 0.417877 0.00719541
0.323494 0.418314 0.00518422
0.868789 0.419385 0.00615549
0.308904 0.419749 0.00496979
0.129193 0.419971 0.00589622
0.887747 0.420309 0.00741956
0.688289 0.421411 0.00642568
0.111776 0.423761 0.00637718
0.0955037 0.423828 0.00728393
0.703566 0.423904 0.00505397
0.663263 0.424312 0.00705435
0.792979 0.425281 0.00713987
0.8184 0.425515 0.00537644
0.296608 0.426578 0.00635655
0.281515 0.427249 0.00589925
0.898498 0.427353 0.00693972
0.853242 0.429483 0.00550484
0.266519 0.430506 0.00556811
0.778758 0.430799 0.00505555
0.677436 0.432175 0.00635655
0.652204 0.433134 0.00707125
0.251021 0.433971 0.0052487
0.0854215 0.434406 0.00763452
0.874467 0.435517 0.00585761
0.100712 0.436398 0.00630878
0.119742 0.436453 0.00466318
0.663964 0.436769 0.00644022
0.806392 0.437456 0.007034
0.906549 0.438139 0.006992
0.304888 0.438258 0.0071627
0.290617 0.438272 0.00600624
0.889575 0.43956 0.00622813
0.235798 0.439763 0.00557632
0.837062 0.441275 0.0061813
0.642327 0.442438 0.00736247
0.690796 0.442647 0.00495214
0.765765 0.444297 0.00490002
0.3158 0.444499 0.00636781
0.074792 0.446076 0.00762435
0.222116 0.447276 0.00624473
0.654325 0.447516 0.00677516
0.274523 0.447739 0.00536124
0.820624 0.447917 0.00758981
0.91443 0.448505 0.00696662
0.671279 0.448696 0.00572079
0.861224 0.448741 0.00574751
0.0893345 0.448775 0.00635592
0.206077 0.450425 0.00514878
0.631803 0.450598 0.00712201
0.293617 0.450908 0.00587085
0.898702 0.452153 0.00631571
0.105517 0.45265 0.00468405
0.307957 0.452859 0.00636969
0.32342 0.453057 0.00678044
0.253068 0.45587 0.00486455
0.878629 0.456218 0.0062054
0.333356 0.456888 0.00614222
0.847717 0.457746 0.00624345
0.75207 0.457804 0.00511426
0.641531 0.458446 0.00756513
0.190977 0.458666 0.00516576
0.92214 0.45869 0.006679
0.232509 0.459207 0.00651794
0.0782196 0.459568 0.00638685
0.623647 0.459792 0.00738595
0.0648694 0.460184 0.00764442
0.83267 0.460713 0.00761547
0.657768 0.461989 0.00612827
0.315313 0.463441 0.00660469
0.342175 0.46382 0.00653349
0.282994 0.464204 0.00543974
0.299456 0.464486 0.00590566
0.678268 0.464547 0.00453114
0.909856 0.465293 0.0064111
0.329004 0.466926 0.00689531
0.892964 0.46741 0.00586576
0.176421 0.468027 0.00530939
0.862487 0.46913 0.00682287
0.265697 0.469358 0.00526838
0.614425 0.469385 0.00723733
0.352324 0.469681 0.00643063
0.73832 0.46972 0.00512126
0.927954 0.469743 0.00692823
0.0915915 0.470116 0.00502237
0.243414 0.470266 0.00638217
0.629237 0.471911 0.00756197
0.845233 0.473645 0.00778247
0.644008 0.474514 0.00646397
0.0582384 0.474762 0.00814582
0.879111 0.474858 0.00594295
0.341071 0.475 0.00700674
0.0728293 0.475075 0.00634527
0.321872 0.47515 0.0062209
0.309131 0.475569 0.00631067
0.360086 0.476719 0.00662635
0.294243 0.477888 0.00575927
0.162575 0.478416 0.00543681
0.60643 0.479831 0.00680944
0.661156 0.480139 0.00514723
0.902473 0.480193 0.00594228
0.724388 0.480515 0.0053393
0.369448 0.480515 0.00644949
0.253767 0.480559 0.00636187
0.331676 0.480796 0.00705601
0.934286 0.481179 0.00680388
0.278321 0.481366 0.00564232
0.918641 0.481442 0.00661613
0.617934 0.482706 0.00701076
0.348733 0.483285 0.00726474
0.379473 0.485221 0.00524262
0.854668 0.48602 0.00783776
0.869561 0.486103 0.00656722
0.317674 0.486388 0.00647443
0.0523864 0.487138 0.007854
0.682609 0.48778 0.00419874
0.888182 0.488187 0.00634181
0.630751 0.488889 0.00677604
0.710086 0.488913 0.00549398
0.304818 0.489164 0.00627652
0.359903 0.489692 0.00734694
0.265089 0.489696 0.00649438
0.149816 0.490756 0.00596835
0.338138 0.490774 0.00717977
0.602648 0.491475 0.00717796
0.0780968 0.492036 0.00523084
0.374212 0.492121 0.0064251
0.290179 0.492412 0.00607838
0.939456 0.492523 0.00650969
0.327332 0.492772 0.00681949
0.386616 0.493355 0.00607379
0.646072 0.494173 0.00591442
0.906577 0.495329 0.00635185
0.925655 0.495971 0.00648856
0.347524 0.496185 0.00734514
0.615792 0.496764 0.00721005
0.367397 0.498241 0.00636419
0.276235 0.499151 0.0067274
0.86224 0.499647 0.00758089
0.315989 0.499681 0.00698211
0.0624862 0.499962 0.00612177
0.876539 0.50006 0.00679686
0.697796 0.500141 0.00565887
0.0465956 0.500385 0.00776018
0.357022 0.501424 0.00673887
0.664636 0.501829 0.00522513
0.392209 0.501854 0.00640458
0.890998 0.502443 0.0060462
0.302265 0.502666 0.00657751
0.328019 0.503017 0.00666109
0.600396 0.503135 0.00744152
0.944366 0.50329 0.00638903
0.380248 0.503462 0.00709032
0.138288 0.504589 0.00634684
0.338211 0.506505 0.00775504
0.63114 0.507614 0.0068879
0.369047 0.507638 0.00661138
0.288152 0.507832 0.00684762
0.916124 0.507837 0.00613087
0.399245 0.508626 0.00572183
0.682892 0.509166 0.006061
0.348287 0.509725 0.00673887
0.933312 0.511211 0.00637406
0.615162 0.511685 0.00733919
0.89998 0.511918 0.00632359
0.31318 0.512511 0.0071799
0.325602 0.51331 0.00726474
0.868421 0.513575 0.00756144
0.357992 0.513784 0.00705732
0.0439339 0.513878 0.00819842
0.881985 0.514328 0.00696091
0.649818 0.514979 0.00618452
0.380017 0.515274 0.00708626
0.600307 0.515329 0.00766886
0.948489 0.515341 0.00678132
0.390804 0.51615 0.00693444
0.299386 0.516544 0.00683249
0.0669774 0.518576 0.00540855
0.402448 0.518778 0.00628159
0.368953 0.518778 0.00685516
0.128991 0.51928 0.00672947
0.670344 0.521012 0.00709401
0.92271 0.521075 0.00580231
0.345201 0.521205 0.0076755
0.333591 0.521448 0.00742633
0.907798 0.523466 0.00620059
0.891482 0.525221 0.00707604
0.321245 0.525311 0.00716653
0.310479 0.52538 0.00675014
0.358096 0.525564 0.00720294
0.634471 0.526134 0.00701814
0.875166 0.526432 0.00771878
0.0378349 0.527089 0.00765197
0.950328 0.527359 0.00661613
0.617204 0.527774 0.00756513
0.601183 0.528155 0.0077453
0.383142 0.528287 0.00676869
0.406059 0.528581 0.00614416
0.93556 0.529146 0.00677721
0.394716 0.529146 0.00617332
0.371545 0.53018 0.00647413
0.655356 0.531873 0.00733647
0.0534723 0.531971 0.00613638
0.337968 0.532483 0.00717627
0.120533 0.534203 0.00697747
0.350583 0.53442 0.00697502
0.673045 0.534873 0.0078057
0.918427 0.5351 0.00626255
0.326181 0.535645 0.00710859
0.902016 0.537081 0.00688443
0.875505 0.537867 0.0068801
0.954342 0.537938 0.00637531
0.362699 0.53833 0.00661673
0.888256 0.539536 0.007359
0.405831 0.540277 0.00726861
0.391555 0.541349 0.00651641
0.606377 0.5414 0.00792589
0.0350191 0.541798 0.00758929
0.341537 0.542726 0.00708381
0.641054 0.542981 0.00700622
0.378609 0.543395 0.00675456
0.624444 0.545114 0.00757485
0.941718 0.545861 0.00669716
0.926417 0.546478 0.00630152
0.677978 0.54877 0.00738541
0.657928 0.548958 0.0071932
0.329308 0.549307 0.00720619
0.909357 0.549394 0.00667006
0.353881 0.549408 0.00694688
0.0469246 0.549624 0.00598367
0.878895 0.549654 0.00722219
0.956909 0.550202 0.00637031
0.367417 0.550553 0.00609767
0.0658317 0.552254 0.00427578
0.12004 0.552333 0.00694172
0.895324 0.552576 0.00747781
0.406454 0.55285 0.00713123
0.341611 0.554003 0.00664555
0.610596 0.554381 0.00736247
0.103248 0.554451 0.00495053
0.392452 0.555531 0.00678631
0.0337968 0.558478 0.00759663
0.378092 0.55976 0.00628222
0.87973 0.560198 0.00684762
0.91723 0.560229 0.00628
0.953184 0.560834 0.00682957
0.933637 0.561357 0.00667721
0.636761 0.562105 0.00718905
0.323931 0.562165 0.00672296
0.684042 0.562663 0.00690118
0.334531 0.56364 0.00665042
0.362354 0.563896 0.00627461
0.891121 0.564868 0.00714773
0.348337 0.565535 0.00676457
0.616493 0.566245 0.00764078
0.404325 0.567063 0.00711111
0.904389 0.567258 0.00717241
0.662541 0.568367 0.00576825
0.0494822 0.568373 0.00575893
0.389948 0.571268 0.00642289
0.117946 0.571403 0.00743242
0.878919 0.57247 0.00721998
0.034415 0.573085 0.00686127
0.958751 0.573245 0.00659202
0.944809 0.573805 0.00626414
0.9204 0.574494 0.00677222
0.321527 0.575458 0.00773089
0.33465 0.575832 0.00655022
0.375206 0.576071 0.00594563
0.687208 0.577878 0.00682112
0.892275 0.578153 0.00765435
0.511349 0.578518 0.00648886
0.621916 0.579112 0.00742573
0.499495 0.579282 0.00631572
0.360724 0.579679 0.00591509
0.521666 0.580052 0.00664974
0.532435 0.580654 0.00658991
0.100786 0.580747 0.00519381
0.346384 0.580906 0.00606986
0.933297 0.581405 0.0060774
0.400513 0.582428 0.00695318
0.488153 0.582625 0.0062689
0.907017 0.583052 0.00726533
0.642967 0.584513 0.00549036
0.879022 0.584986 0.00767379
0.0571637 0.585463 0.00526535
0.0367713 0.585734 0.00696405
0.541795 0.586557 0.00704531
0.316855 0.587019 0.0072255
0.956249 0.5882 0.00697604
0.385027 0.588635 0.00611201
0.505197 0.588805 0.00691523
0.552862 0.58895 0.00646705
0.479574 0.589525 0.00691098
0.331383 0.590157 0.00720536
0.120315 0.590246 0.00784741
0.894016 0.591484 0.0073695
0.692845 0.592004 0.00650143
0.515773 0.592343 0.00708092
0.493591 0.592718 0.00742633
0.527646 0.593063 0.00767145
0.625453 0.593246 0.00710999
0.922014 0.593376 0.00689714
0.469159 0.593548 0.00614902
0.941722 0.59436 0.00628602
0.367752 0.595321 0.00564796
0.562834 0.59541 0.00689801
0.87387 0.595649 0.0073503
0.349673 0.595656 0.00594998
0.396703 0.598411 0.00691386
0.0395735 0.598418 0.00699086
0.906974 0.598447 0.00661132
0.316638 0.598627 0.00765665
0.537659 0.600024 0.00680858
0.549089 0.600522 0.00745424
0.503713 0.600954 0.00742015
0.886212 0.601387 0.00772089
0.459092 0.602027 0.0068109
0.573494 0.602065 0.00723568
0.473318 0.602762 0.00726474
0.486675 0.60278 0.00792823
0.954828 0.603508 0.00652343
0.105117 0.603998 0.00533669
0.515364 0.604796 0.00707381
0.335095 0.604854 0.00649683
0.527349 0.605847 0.00637487
0.380149 0.60585 0.00571487
0.632194 0.606418 0.00720729
0.0595523 0.60648 0.00512902
0.697144 0.606641 0.0061584
0.126129 0.607647 0.00794169
0.87022 0.607705 0.00760475
0.933117 0.608021 0.00639027
0.560968 0.608251 0.00694575
0.310106 0.608787 0.00723678
0.584371 0.608997 0.00722191
0.898797 0.610499 0.00722274
0.497085 0.610637 0.00735867
0.041158 0.610927 0.00647382
0.915723 0.611537 0.00666886
0.449176 0.611972 0.00732643
0.355676 0.612274 0.00553585
0.476719 0.612303 0.0070329
0.462574 0.612945 0.00760585
0.323341 0.613619 0.00671081
0.883524 0.614277 0.00752553
0.550164 0.61445 0.00648119
0.537934 0.614609 0.00705858
0.392513 0.614811 0.00678983
0.595168 0.616224 0.00742331
0.949809 0.616237 0.00678514
0.572085 0.616272 0.00719652
0.509097 0.617029 0.00726669
0.522961 0.617573 0.0067028
0.486785 0.618379 0.00742819
0.864594 0.618731 0.00761834
0.438365 0.619501 0.00701644
0.635462 0.620124 0.00712062
0.700794 0.621335 0.00597068
0.308051 0.621413 0.00750835
0.0461429 0.621986 0.00647474
0.373075 0.622185 0.00547948
0.607228 0.622235 0.00708391
0.473006 0.622617 0.00727307
0.134213 0.622684 0.00792689
0.559559 0.62366 0.006417
0.33929 0.623824 0.00570267
0.114343 0.624081 0.00556811
0.583351 0.624593 0.00737544
0.459331 0.624667 0.00719341
0.497471 0.62491 0.00704002
0.878089 0.625132 0.00740452
0.931541 0.625298 0.00639027
0.89649 0.625404 0.00703627
0.0672219 0.627009 0.00494127
0.91387 0.627438 0.00621341
0.448101 0.628072 0.00716615
0.856647 0.628431 0.00767145
0.322767 0.629068 0.0064652
0.949063 0.629636 0.00609081
0.529654 0.629776 0.00626731
0.542414 0.629864 0.00663626
0.433004 0.629929 0.00741822
0.388747 0.630573 0.00673479
0.517279 0.63082 0.00633459
0.597609 0.631154 0.00728939
0.61592 0.631442 0.00793166
0.485417 0.63231 0.00794743
0.506248 0.633085 0.00642103
0.421797 0.633231 0.00696576
0.471343 0.633704 0.00683924
0.0490809 0.633704 0.00628254
0.30526 0.633889 0.00751762
0.570952 0.634851 0.00682316
0.356145 0.634948 0.00495254
0.627665 0.63496 0.00767702
0.870046 0.63498 0.00731365
0.640883 0.635548 0.00703287
0.143521 0.635691 0.00797196
0.703244 0.636494 0.00588946
0.554303 0.636654 0.00575063
0.846427 0.637483 0.00756223
0.887134 0.637924 0.00683103
0.459639 0.639586 0.00679862
0.496248 0.640716 0.00765705
0.444157 0.641336 0.00666737
0.942921 0.641718 0.00646736
0.124566 0.642001 0.00545144
0.9044 0.642046 0.00620573
0.413917 0.642119 0.00719513
0.317475 0.642636 0.00618613
0.375 0.642709 0.00547475
0.586388 0.642825 0.00633365
0.859441 0.643713 0.00759322
0.0560644 0.643806 0.00636468
0.923988 0.643897 0.0060908
0.477623 0.644437 0.00713179
0.527386 0.64473 0.00687633
0.604521 0.64516 0.00695118
0.511701 0.64532 0.00721447
0.429145 0.645566 0.00678748
0.651867 0.646354 0.0079279
0.337058 0.646582 0.00533706
0.153876 0.646729 0.0077363
0.835358 0.646844 0.00769244
0.542411 0.647061 0.00600923
0.302291 0.647343 0.00748977
0.403804 0.647587 0.00722467
0.389214 0.648353 0.00703966
0.635975 0.649195 0.00724558
0.079368 0.649372 0.00461729
0.875432 0.649457 0.00693168
0.620489 0.649941 0.00693914
0.558845 0.650154 0.00569987
0.489413 0.651324 0.00714684
0.705247 0.652 0.00597901
0.847115 0.652073 0.00743177
0.665877 0.652324 0.00799664
0.45963 0.6529 0.00617099
0.822952 0.653208 0.00722853
0.0610445 0.654424 0.00589622
0.165637 0.654516 0.00755407
0.573525 0.654645 0.00570162
0.937308 0.65537 0.00622494
0.502402 0.655944 0.0076105
0.892499 0.656021 0.005981
0.680986 0.656447 0.00753956
0.441188 0.656712 0.00571313
0.316594 0.657344 0.0061655
0.138557 0.657661 0.00555988
0.518766 0.657921 0.00758588
0.418485 0.658386 0.00644516
0.474163 0.658884 0.00629172
0.398664 0.659135 0.00658507
0.861708 0.659143 0.0066921
0.53769 0.659765 0.00652801
0.364226 0.660077 0.00495696
0.646131 0.660161 0.00645319
0.912359 0.660351 0.00570546
0.300234 0.661058 0.00756986
0.812373 0.661085 0.00838754
0.590392 0.662355 0.0055749
0.83156 0.662496 0.00766341
0.177265 0.662802 0.00769916
0.384351 0.663732 0.00710747
0.694538 0.663837 0.00830742
0.798446 0.663874 0.00798991
0.0675359 0.664433 0.00574993
0.661228 0.665505 0.00628761
0.554349 0.665581 0.00621726
0.709478 0.665619 0.00801727
0.608093 0.665754 0.00542362
0.846362 0.665858 0.00661372
0.785086 0.666381 0.00777044
0.488057 0.666658 0.00657206
0.878042 0.667845 0.00577963
0.929384 0.668087 0.00620572
0.334951 0.668229 0.00462246
0.67758 0.668256 0.00645781
0.528641 0.668314 0.00671051
0.737751 0.668658 0.00810639
0.770653 0.669007 0.00830743
0.723218 0.669063 0.00840579
0.156496 0.669431 0.00595633
0.190314 0.669479 0.00781258
0.754258 0.669873 0.00833589
0.627477 0.669888 0.00565465
0.455978 0.670157 0.00532549
0.0759509 0.672461 0.00582524
0.0960277 0.672722 0.00426506
0.405984 0.672933 0.00509633
0.313659 0.673237 0.0060846
0.570174 0.673883 0.00575858
0.432812 0.673887 0.00468193
0.203873 0.67485 0.00751047
0.822697 0.675128 0.00715936
0.29862 0.675231 0.00748499
0.898202 0.676177 0.00540524
0.804965 0.676363 0.00752609
0.542277 0.676509 0.00730439
0.861025 0.677531 0.00581122
0.47304 0.677992 0.00640955
0.383989 0.678854 0.00678426
0.646023 0.679132 0.00473728
0.216801 0.679252 0.00735273
0.785223 0.679481 0.00723623
0.17353 0.679756 0.0057527
0.840821 0.680217 0.00593256
0.919293 0.680755 0.00618323
0.742477 0.681243 0.00676839
0.689469 0.68163 0.00596601
0.764009 0.681926 0.00707322
0.668023 0.682129 0.00467937
0.707616 0.682512 0.00670191
0.229301 0.682742 0.00720426
0.365544 0.683143 0.00473308
0.0826681 0.683484 0.00568204
0.241919 0.683745 0.00683802
0.585371 0.684167 0.00544047
0.55585 0.6856 0.00750915
0.281825 0.685712 0.0069957
0.254314 0.686327 0.00698346
0.267874 0.686349 0.00744286
0.190896 0.687302 0.00572565
0.725927 0.688031 0.00637031
0.294346 0.688815 0.00753824
0.604086 0.689892 0.00487109
0.881163 0.690031 0.00503662
0.455812 0.690249 0.00611071
0.326208 0.69036 0.00437789
0.308776 0.690528 0.00629899
0.814585 0.69219 0.00535864
0.0924311 0.692398 0.00560445
0.207572 0.692809 0.0055631
0.795719 0.692973 0.00554734
0.775568 0.694382 0.00541039
0.908357 0.694418 0.00625905
0.751266 0.694746 0.00527781
0.380902 0.695563 0.00667334
0.569987 0.695602 0.00734434
0.8335 0.696402 0.00452587
0.224862 0.69789 0.00544632
0.121198 0.698644 0.00363526
0.242662 0.698679 0.00574993
0.102489 0.698721 0.00576722
0.278134 0.699827 0.00562289
0.858612 0.700284 0.00440373
0.260692 0.700911 0.00540634
0.43873 0.701586 0.00586576
0.296415 0.703212 0.0078187
0.622659 0.703602 0.0041921
0.585823 0.705281 0.00733322
0.895641 0.706436 0.00603962
0.110506 0.709482 0.00540008
0.313086 0.71078 0.00608263
0.368641 0.711691 0.00461212
0.382563 0.712724 0.00637499
0.421372 0.713061 0.00549833
0.602491 0.714585 0.00724832
0.122593 0.716427 0.00541995
0.880851 0.717166 0.00608656
0.296741 0.717975 0.00751815
0.134443 0.720867 0.00541297
0.402811 0.723276 0.00517845
0.620984 0.72405 0.00689368
0.864356 0.727468 0.00590195
0.144963 0.727989 0.00540855
0.383844 0.729924 0.00716547
0.643626 0.731525 0.00621406
0.157282 0.732873 0.00520491
0.31292 0.73316 0.00593457
0.29715 0.733434 0.00780519
0.845804 0.736169 0.00579098
0.169932 0.738659 0.00532324
0.632553 0.740122 0.00736355
0.661181 0.741206 0.00659625
0.372767 0.741542 0.00450117
0.184287 0.743229 0.00517653
0.825269 0.744762 0.00543791
0.199694 0.747415 0.0051511
0.68152 0.747594 0.00639588
0.385729 0.747799 0.0062581
0.643199 0.750176 0.00646767
0.298892 0.750271 0.00807391
0.215739 0.75092 0.00498378
0.803609 0.751108 0.00547512
0.231539 0.753245 0.00489026
0.702446 0.753415 0.00686069
0.779835 0.754895 0.00576066
0.7274 0.755018 0.00613282
0.247696 0.755036 0.00483953
0.280385 0.755363 0.00506892
0.263338 0.75563 0.00484693
0.628775 0.756165 0.00771079
0.753961 0.75682 0.00623005
0.314152 0.759351 0.00563808
0.656982 0.763002 0.00478868
0.38582 0.7639 0.00739591
0.300751 0.767476 0.00738164
0.638089 0.767977 0.00653532
0.694091 0.769725 0.00635561
0.623788 0.771683 0.00797994
0.390669 0.780198 0.00750544
0.307787 0.781886 0.00802669
0.650208 0.781946 0.00494208
0.618161 0.785822 0.00824321
0.634196 0.786167 0.00658447
0.672281 0.786607 0.00441817
0.691094 0.787388 0.00611657
0.396457 0.796143 0.00776531
0.310855 0.79693 0.00791307
0.61003 0.79889 0.00828295
0.626522 0.801151 0.00708559
0.64915 0.804156 0.0055606
0.682669 0.805212 0.00641979
0.407382 0.810022 0.00719956
0.600877 0.811804 0.00807022
0.315607 0.811984 0.00789847
0.61513 0.814724 0.00739295
0.396435 0.819548 0.00525097
0.631041 0.820225 0.00599563
0.674484 0.821475 0.00651244
0.59093 0.823504 0.00760841
0.414235 0.825782 0.00800211
0.321256 0.827456 0.00785526
0.603135 0.82776 0.00742144
0.650245 0.828212 0.00487273
0.582597 0.833682 0.0077242
0.6156 0.836025 0.00672089
0.425848 0.83673 0.00775274
0.66678 0.839003 0.0061221
0.593858 0.842896 0.00791357
0.574222 0.843053 0.00846994
0.328142 0.84309 0.00781742
0.632872 0.845422 0.00542435
0.414405 0.847813 0.00577101
0.436958 0.848702 0.00842778
0.564803 0.851457 0.00860446
0.655199 0.854335 0.00637812
0.60544 0.855185 0.00646274
0.552258 0.856951 0.00847535
0.336797 0.858729 0.00781335
0.451267 0.858747 0.00898752
0.584173 0.859619 0.0082572
0.537755 0.862251 0.00814826
0.622357 0.866051 0.00519151
0.432054 0.866056 0.00647259
0.466006 0.866972 0.0094428
0.567126 0.868462 0.00822702
0.525908 0.869683 0.00917143
0.480766 0.870205 0.00915667
0.644287 0.87057 0.00650938
0.497539 0.871376 0.00925245
0.512456 0.871698 0.00906536
0.548485 0.872259 0.00804428
0.347476 0.874757 0.00781946
0.601649 0.878242 0.00596802
0.449751 0.879994 0.00678719
0.581662 0.884144 0.00655114
0.53839 0.88494 0.0075488
0.486366 0.886446 0.0077064
0.630493 0.886814 0.00671229
0.558542 0.887385 0.0068905
0.505023 0.890414 0.00790023
0.360208 0.890452 0.00766808
0.522925 0.890491 0.00756434
0.466973 0.892778 0.006712
0.614502 0.900939 0.00685314
0.374382 0.904271 0.00711586
0.57026 0.90604 0.00550448
0.543097 0.908064 0.00627779
0.488898 0.910396 0.00572635
0.597572 0.912984 0.00703513
0.516879 0.914484 0.00592282
0.390142 0.916854 0.00691673
0.579991 0.926348 0.00660348
0.407224 0.928459 0.00699172
0.558497 0.934781 0.00688096
0.425698 0.937562 0.00683074
0.536654 0.942627 0.00703259
0.445646 0.943735 0.00677163
0.467423 0.947346 0.00672
0.513526 0.948274 0.00706675
0.490342 0.949407 0.00695805
